ply
format ascii 1.0
element vertex 1184
property float x
property float y
property float z
property uchar red
property uchar green
property uchar blue
end_header
-42.692417 32.629956 34.210137 255 102 0
-30.960887 52.245391 19.223232 255 89 0
-58.579378 11.567902 -22.188512 255 118 0
-27.035289 -39.762308 40.912439 255 3 0
-17.166205 -46.399644 40.682659 255 6 0
-38.904928 32.271172 36.110653 255 85 0
-39.346280 -1.211967 49.123354 255 76 0
-39.393001 -4.322167 49.726147 255 8 0
-38.742310 23.244782 43.958465 255 89 0
-27.563379 -39.678205 41.214935 255 29 0
-42.592681 32.767870 34.202634 255 144 0
17.930135 -56.414293 -17.859097 255 110 0
-37.065217 45.307428 -7.037436 255 105 0
7.626219 57.970668 25.280363 255 113 0
-39.039058 -4.587969 49.169147 255 38 0
-52.303134 31.953416 -6.359153 255 105 0
-54.737596 -25.255617 20.614049 255 30 0
-52.868691 34.641918 -7.819563 255 161 0
-13.483495 -52.559704 33.522128 255 0 0
-13.496613 -52.575430 33.474548 255 51 0
30.177726 -14.382143 -52.600969 255 105 0
-13.478757 -52.558580 33.484696 255 0 0
-39.082559 -2.870387 49.296922 255 29 0
-13.477204 -52.592989 33.488580 255 55 0
-31.173960 52.264104 18.823858 255 102 0
-13.484288 -52.581354 33.492246 255 93 0
-49.639134 36.680238 13.135420 255 105 0
23.698972 -55.827668 19.658853 255 5 0
-31.049902 52.265730 19.023329 255 110 0
-27.553062 -14.120738 52.812873 255 25 0
-54.123670 -24.801655 20.722799 255 18 0
-23.548389 -49.054402 33.430659 255 10 0
-39.597733 -4.459233 49.781900 255 4 0
-25.408219 -13.923392 54.524151 255 25 0
-54.748141 -25.240977 21.131339 255 18 0
-35.946103 -8.673170 50.031015 255 63 0
-23.420495 -21.986079 55.180751 255 29 0
-38.269284 -6.977549 50.286864 255 42 0
-23.679387 -5.672986 58.797564 255 4 0
23.885875 -55.583844 19.670661 255 12 0
-13.481407 -52.562804 33.485810 255 0 0
-35.048959 -10.516792 51.592446 255 25 0
-38.888923 -4.479794 49.297927 255 38 0
-13.482164 -52.563689 33.487052 255 46 0
-39.661175 -4.481870 49.833156 255 8 0
-35.717200 -8.894440 50.094835 255 29 0
-38.945286 -4.319622 49.210208 255 8 0
-38.856058 -4.336707 49.252383 255 0 0
-38.747353 -4.363469 49.109666 255 93 0
-38.712851 -3.144618 48.990810 255 29 0
-39.356734 -4.326739 49.750625 255 4 0
-38.610505 -4.329293 49.035957 255 72 0
-30.930216 50.917302 21.488590 255 127 0
-39.367879 -4.464176 49.661558 255 21 0
1.929371 -56.723059 13.502836 255 102 0
-13.242906 -52.683832 33.458347 255 8 0
-16.607991 -40.114444 46.430813 255 16 0
-40.163897 47.853594 -8.183041 255 97 0
2.446969 -60.390615 13.305775 255 136 0
32.632155 52.250364 16.209005 255 105 0
-13.519333 -52.604313 33.499361 255 32 0
19.538110 -54.199131 -22.594152 255 97 0
23.745844 -55.478066 19.598982 255 0 0
-30.527519 -18.092348 52.900166 255 63 0
-34.217594 -12.239815 51.523682 255 51 0
-31.183145 52.273490 18.782537 255 105 0
-32.034485 -12.391472 50.479703 255 4 0
61.375961 -5.507137 -16.135451 255 118 0
23.752644 54.916732 -21.855307 255 110 0
23.348141 55.155664 -21.688868 255 102 0
-55.002707 -24.948984 21.349011 255 17 0
-54.087640 -24.729381 20.725368 255 7 0
-26.891765 -15.297080 54.629771 255 4 0
-33.710241 -14.800217 51.917112 255 12 0
-54.837922 -3.145322 -32.258321 255 97 0
28.902900 44.319035 -35.470206 255 113 0
19.469576 -54.492064 -23.298391 255 174 0
-45.367052 -0.390448 -21.879863 255 89 0
-37.633781 -7.027064 49.970205 255 32 0
-1.485254 -52.039352 36.994995 255 6 0
-27.473401 -39.806131 41.032994 255 16 0
3.443644 -47.845758 -41.911989 255 102 0
-42.552010 -0.448888 -17.362481 255 118 0
23.694188 -55.714538 19.609317 255 12 0
-19.354467 -41.231345 44.531683 255 21 0
-26.976764 -14.861273 55.402485 255 16 0
-36.458952 50.796347 -0.019425 255 113 0
23.811336 -55.464196 19.657778 255 5 0
-58.169508 -5.575778 -25.355651 255 113 0
24.110468 -55.277822 19.729862 255 15 0
-37.801449 -8.125738 50.033076 255 0 0
-36.664412 16.678419 47.172225 255 97 0
-30.132955 49.322528 24.469416 255 110 0
-32.293921 -13.958703 53.128364 255 8 0
32.946919 34.858666 41.917347 255 89 0
-58.392569 -4.689641 -25.020096 255 105 0
-30.936733 52.402127 18.831505 255 105 0
-31.068106 52.284319 18.942355 255 105 0
-31.098577 -13.911066 53.909449 255 76 0
-37.242375 -2.690017 47.490831 255 4 0
-17.173608 -46.440410 40.714281 255 0 0
-38.306894 -2.312484 48.481455 255 59 0
-54.105751 -24.785255 20.774548 255 0 0
-31.244210 52.268186 18.695618 255 93 0
-35.876493 -3.470060 46.947216 255 42 0
-54.144110 -24.700583 20.682427 255 16 0
-31.309329 52.137564 18.949679 255 127 0
-12.558430 -53.210518 32.985496 255 0 0
-31.078181 52.265125 18.978760 255 110 0
-19.329768 -41.230911 44.542811 255 0 0
20.506991 -52.271003 -22.900114 255 178 0
-19.427664 -41.184530 44.543129 255 4 0
-31.051995 52.358703 18.762457 255 123 0
-58.377841 -4.556608 -25.078975 255 118 0
18.638713 -58.380641 -17.402342 255 105 0
-56.543574 -3.513234 -28.859970 255 147 0
-37.093939 50.316304 0.473735 255 113 0
20.731701 -48.430200 -23.539534 255 89 0
-43.969086 -0.249256 -19.127462 255 157 0
-52.084408 33.936043 -6.646225 255 97 0
-57.772316 -5.712577 -20.044941 255 110 0
-54.216325 -24.866065 20.722173 255 4 0
-25.697013 -14.866930 56.308054 255 4 0
-27.089477 -41.623952 40.172623 255 8 0
23.579556 -55.824251 19.622482 255 5 0
-26.488230 -13.289770 51.601548 255 32 0
23.586935 -55.832659 19.628648 255 25 0
27.790737 42.149906 38.842636 255 85 0
-54.850639 -24.815010 21.367819 255 18 0
-13.428351 -52.638289 33.485521 255 55 0
-23.518524 -5.423410 58.632640 255 12 0
-31.283862 52.127307 19.019828 255 97 0
4.067722 -62.629210 10.896133 255 102 0
-25.182316 -13.506997 56.863535 255 0 0
-19.368499 -41.221578 44.534624 255 4 0
-58.378691 -4.914817 -25.009258 255 118 0
13.054415 -59.664792 2.849941 255 102 0
-39.481284 -4.143450 50.077752 255 4 0
-34.853694 12.480321 50.181856 255 85 0
-57.537147 13.642352 -12.931110 255 102 0
-31.277146 52.101894 19.108738 255 105 0
-35.179868 12.451833 50.320941 255 105 0
-27.437057 -16.351745 55.363196 255 25 0
-39.074530 2.122904 49.308994 255 46 0
-54.093971 -24.650338 20.674446 255 1 0
-18.803847 -13.318646 59.173753 255 8 0
-34.203839 14.472051 46.599204 255 93 0
-54.962376 -24.948813 21.345090 255 10 0
23.858593 -55.782747 19.616604 255 28 0
23.839893 -55.756968 19.620982 255 17 0
23.847423 -55.751697 19.608291 255 8 0
-30.483019 -17.779738 52.822128 255 25 0
14.763427 44.500529 41.897565 255 102 0
-59.922913 -6.499659 -20.510035 255 153 0
32.081609 -14.445380 -53.101707 255 89 0
-39.402384 -4.458198 49.433933 255 0 0
-25.965918 -12.790610 50.596562 255 25 0
-33.380199 51.228377 17.863530 255 127 0
-39.642232 -1.081273 49.362131 255 0 0
23.679862 -55.696596 19.560730 255 11 0
-44.153242 -1.535153 -15.875881 255 93 0
23.691922 -55.691217 19.683030 255 11 0
-54.120240 -24.777996 20.774595 255 21 0
23.719749 -55.710734 19.616485 255 0 0
-37.680485 -3.386030 48.293590 255 32 0
-54.738279 -25.274668 20.579583 255 60 0
-31.131528 52.215335 19.028316 255 136 0
-54.713398 -25.360172 20.599996 255 1 0
-54.092737 -24.767495 20.763178 255 0 0
-54.755208 -25.286736 20.583814 255 43 0
-54.134662 -24.782872 20.787652 255 7 0
20.654500 -50.971526 -25.024549 255 93 0
-30.408282 -17.935947 52.733673 255 46 0
-54.747314 -25.276521 20.585782 255 50 0
5.220763 47.468330 42.156747 255 85 0
-27.194174 -13.533042 52.025697 255 0 0
-13.475170 -52.590747 33.465002 255 0 0
-37.868319 -7.368744 50.103466 255 0 0
-13.470686 -52.575616 33.483229 255 72 0
23.781921 -55.713266 19.639159 255 5 0
-23.584149 -44.437064 39.308925 255 8 0
-23.388257 -48.570812 33.598880 255 7 0
-26.314225 -15.104595 54.850445 255 0 0
-13.468782 -52.578778 33.512806 255 32 0
-31.131312 52.285694 18.834479 255 89 0
-13.463862 -52.567212 33.487418 255 72 0
-54.085432 -24.778038 20.746862 255 13 0
-13.494346 -52.566030 33.490220 255 12 0
12.098057 -43.782599 44.872526 255 21 0
-45.619126 -0.124447 -19.798449 255 105 0
-43.487425 -0.208043 -18.818904 255 102 0
-54.723599 -25.244140 20.574386 255 111 0
21.005880 -50.587771 -21.029795 255 102 0
-26.393971 -14.653490 54.351775 255 8 0
-54.121199 -24.781660 20.783202 255 29 0
-13.487243 -52.625681 33.481670 255 4 0
-44.981421 33.922157 29.726235 255 102 0
-31.314928 52.130188 18.960718 255 93 0
23.419767 -54.994180 20.806682 255 51 0
-30.381247 -14.034504 52.055411 255 0 0
-54.066557 -24.762354 20.739182 255 97 0
-34.472755 50.081357 14.082043 255 105 0
23.408290 -55.488566 19.557115 255 11 0
-31.304496 52.110967 19.030650 255 118 0
-31.114912 52.235127 19.001152 255 113 0
-54.742427 -25.166357 21.227667 255 8 0
23.814955 -55.733173 19.539473 255 9 0
-31.142436 52.204420 19.040411 255 102 0
-31.130597 52.221648 19.012506 255 113 0
-54.091723 -24.670976 20.683111 255 10 0
-44.772370 -0.193795 -20.249095 255 127 0
-31.089642 52.221515 19.079768 255 102 0
-31.112217 52.210704 19.072555 255 123 0
-53.770054 -24.956750 20.732092 255 2 0
23.001839 -54.221822 19.952631 255 39 0
-30.772664 51.584567 18.962598 255 211 0
-28.573210 -15.609946 53.570626 255 0 0
-37.719844 -6.946095 50.882051 255 46 0
62.069308 -13.847975 -3.650290 255 105 0
-54.735500 24.357911 -7.348776 255 123 0
23.783467 -55.575797 19.587492 255 2 0
-26.196081 -44.375250 37.440051 255 8 0
-34.910293 -12.770724 51.728812 255 32 0
-27.079720 -39.732630 40.894757 255 0 0
-37.077002 -2.578046 47.508224 255 0 0
-13.518433 -52.593973 33.518892 255 15 0
-43.009968 -0.879527 -16.398272 255 113 0
-23.567162 -48.970768 33.364742 255 28 0
-27.369314 -39.995081 41.088187 255 28 0
-38.330652 -7.114201 50.141574 255 0 0
45.064192 -43.074812 13.094626 255 110 0
-26.547870 -43.513452 38.204143 255 10 0
-50.375421 -2.741991 -16.475079 255 102 0
15.373660 43.633997 34.144387 255 123 0
-28.767202 54.256431 -10.368154 255 97 0
-13.516724 -52.550591 33.487803 255 25 0
-26.804948 -41.300194 40.587738 255 11 0
-31.157747 -13.949152 53.982595 255 16 0
-36.900542 50.727957 0.244368 255 97 0
-9.450565 41.628090 -47.280852 255 97 0
-30.129088 53.857993 15.787482 255 110 0
-46.058391 -0.202577 -27.478917 255 93 0
-54.691491 -25.230872 21.096086 255 15 0
-12.188620 -44.573041 44.279584 255 55 0
-31.081824 43.851518 26.225143 255 105 0
-21.926568 -44.798258 40.017903 255 16 0
-54.680025 -23.944636 22.070441 255 47 0
-31.219512 -18.233709 52.327171 255 55 0
-21.152899 -35.904287 48.594194 255 7 0
-32.161820 -14.008059 52.338071 255 8 0
6.259116 47.089182 42.439633 255 93 0
-3.175519 -61.736671 15.368458 255 76 0
-13.397085 -52.594461 33.528676 255 12 0
-54.087599 -24.650844 20.664944 255 7 0
-31.739932 -12.737948 50.926716 255 8 0
-37.774992 29.628215 40.505718 255 102 0
-3.280023 57.393149 25.078692 255 110 0
-28.618989 -36.980067 43.256423 255 38 0
23.852744 -55.574026 19.679429 255 32 0
-46.330354 34.468342 25.043987 255 102 0
-13.467270 -52.616861 33.503563 255 46 0
-13.494580 -52.603878 33.512961 255 12 0
-39.514427 -0.264074 49.002478 255 85 0
-16.524890 -43.388439 43.802141 255 8 0
-35.352222 -11.269757 50.792466 255 8 0
-10.240884 58.552110 22.901195 255 97 0
20.481968 -48.845385 -23.949178 255 93 0
-10.223804 58.555013 22.901403 255 89 0
-6.945005 -48.429679 41.026279 255 59 0
-10.258845 58.538002 22.929204 255 93 0
-23.300317 -13.812778 57.272667 255 21 0
-38.506601 50.047901 -8.374919 255 97 0
-39.171306 1.520215 49.254444 255 42 0
-31.680759 28.039908 22.890738 255 102 0
-52.303231 32.895047 -6.654243 255 123 0
-26.965797 -41.847538 40.064913 255 8 0
-38.285614 -8.111532 50.495899 255 0 0
-49.214031 1.292497 -38.092469 255 127 0
13.309926 -62.290502 0.655157 255 102 0
31.242678 52.965318 16.621078 255 127 0
-28.743443 -14.708446 53.233295 255 12 0
25.048240 -52.829979 20.327051 255 75 0
-23.505980 -16.370446 56.845725 255 8 0
-55.276757 -23.898514 20.761291 255 55 0
-8.832873 -50.641389 -37.618082 255 110 0
-54.134470 -24.783743 20.792576 255 50 0
2.152234 -60.582968 13.411978 255 93 0
-38.231781 -5.242405 49.734803 255 55 0
-54.092874 -24.775748 20.764809 255 2 0
40.402762 30.511166 38.657154 255 85 0
-45.781801 -0.176430 -20.836724 255 102 0
-54.997476 -24.946804 21.337129 255 8 0
-26.008787 -29.716818 49.981434 255 110 0
-28.607790 9.014128 -56.196351 255 123 0
-45.192826 30.845680 17.395014 255 93 0
23.758398 -55.631714 19.539923 255 4 0
-54.129628 -24.698540 20.678912 255 11 0
-34.217624 -12.963762 52.200599 255 0 0
-37.283101 49.950309 3.094260 255 110 0
23.710909 -55.503530 19.561375 255 4 0
8.911255 51.642789 36.211902 255 93 0
-54.093138 -24.682638 20.706573 255 9 0
-44.862543 33.928044 29.898663 255 118 0
-34.707063 -11.645431 51.027906 255 29 0
-23.583682 -44.437121 39.304269 255 32 0
-23.446004 -48.043762 35.012018 255 5 0
-54.776797 -25.281049 20.585379 255 32 0
-39.606431 -0.229225 48.928321 255 29 0
-13.492620 -52.580130 33.486406 255 21 0
59.943098 -21.546341 -0.519860 255 102 0
-38.209001 -6.063948 49.658869 255 21 0
-13.519329 -52.579196 33.503540 255 0 0
-44.146366 8.384243 -45.009888 255 55 0
-13.519931 -52.571570 33.488831 255 21 0
-38.218613 -6.141677 49.641917 255 42 0
-34.691402 -9.009477 49.625947 255 0 0
47.789026 -40.787419 10.501690 255 110 0
39.212704 -20.249154 45.935015 255 97 0
23.709723 -55.596078 19.620289 255 1 0
-39.437284 -4.579721 49.959517 255 8 0
-30.177500 -14.847274 52.935561 255 16 0
-54.148418 -24.767265 20.751285 255 5 0
-26.921598 -13.666733 52.174001 255 8 0
-38.012450 30.327564 41.126081 255 89 0
-19.389326 -41.192596 44.568243 255 5 0
-12.288298 -44.677250 44.146812 255 51 0
-14.994527 -14.919658 58.687364 255 42 0
-38.593915 3.370625 49.617044 255 63 0
5.418328 -51.233666 37.130531 255 9 0
-31.028138 -13.969080 52.263876 255 29 0
-39.460300 -4.442710 49.950266 255 51 0
-23.903285 -13.369116 53.914400 255 97 0
-54.435847 -2.160296 -33.011538 255 113 0
-43.902206 0.425735 -19.135239 255 89 0
32.466656 46.643529 28.774771 255 118 0
-31.473496 -14.711591 53.248517 255 0 0
23.998423 -55.157489 20.780157 255 40 0
-44.266094 0.241282 -27.139880 255 102 0
-35.195944 -10.287080 50.553672 255 8 0
-25.961749 -14.569769 55.124694 255 4 0
28.094650 -13.854443 -55.465621 255 118 0
-33.763198 45.761836 28.698271 255 131 0
-24.448829 -44.348111 38.966364 255 2 0
-51.092259 32.109791 20.401774 255 113 0
-33.815934 45.769908 28.623209 255 131 0
-35.349700 -10.053687 50.882398 255 4 0
-13.497706 -52.596613 33.506950 255 16 0
20.160277 -1.102041 60.415550 255 105 0
-38.918134 -2.608137 49.029695 255 32 0
31.972957 46.159321 30.078848 255 110 0
13.475768 -62.482572 0.754181 255 157 0
-34.315842 -4.489802 46.101821 255 93 0
23.711452 -55.687652 19.635597 255 8 0
-24.315810 -48.205045 33.619264 255 13 0
-21.990462 -44.852447 40.008468 255 25 0
-21.918407 -44.825760 39.986771 255 25 0
-13.519040 -52.559854 33.484079 255 8 0
21.673862 50.330980 32.476547 255 93 0
-44.878148 34.015876 29.775192 255 102 0
-28.195622 -13.511801 51.807521 255 38 0
-57.834118 13.782511 -11.750908 255 97 0
-24.272229 -48.130834 33.562521 255 97 0
-24.321175 -48.163408 33.596753 255 22 0
-11.217319 -52.655789 34.251430 255 12 0
59.950845 -14.759627 -15.676085 255 136 0
20.498607 -53.031318 -20.800985 255 102 0
-36.325308 50.282256 12.636792 255 102 0
23.776558 -55.577084 19.601957 255 2 0
-53.837323 -4.901096 -15.076419 255 102 0
23.821469 -55.665941 19.651502 255 16 0
-39.252291 23.701488 44.217498 255 110 0
-26.750755 -44.391057 37.275543 255 20 0
-38.656118 -4.560135 49.022127 255 16 0
-27.950410 -6.264869 56.970420 255 68 0
-54.141852 -24.696313 20.695261 255 0 0
-34.668929 -11.669472 51.230765 255 51 0
-22.132006 42.810653 -5.941110 255 93 0
8.539851 -52.204990 35.905286 255 5 0
-23.307249 -14.819377 57.580494 255 0 0
23.775702 -55.603258 19.577386 255 21 0
-27.485135 -13.991146 52.510776 255 8 0
-25.905036 -44.572510 37.558210 255 5 0
-36.414636 -4.873305 47.826828 255 42 0
-10.842262 -52.746950 34.156663 255 55 0
-54.979306 -24.916197 21.293641 255 10 0
-36.745823 22.583290 42.606393 255 110 0
-35.733210 -10.225008 50.806391 255 59 0
28.839772 -14.080680 -54.007725 255 105 0
-16.998038 -43.772566 43.229475 255 11 0
-44.741083 -2.158695 -16.154873 255 93 0
-39.297998 -2.766869 49.463896 255 0 0
-50.796125 32.676049 18.427852 255 110 0
-34.633766 -12.785999 51.899557 255 12 0
-36.605865 -10.368008 51.048529 255 42 0
-35.624028 -3.650785 46.130837 255 29 0
29.263392 -55.422046 11.344824 255 102 0
-13.488536 -52.559990 33.478543 255 12 0
-54.185443 -24.728191 20.734049 255 11 0
-26.777774 -39.968213 40.763840 255 16 0
32.356345 46.686178 28.829807 255 89 0
22.977652 -52.763870 19.205479 255 72 0
-51.960496 -0.427423 -34.782414 255 131 0
23.778407 -55.573805 19.648836 255 26 0
8.537200 -52.201174 35.901316 255 13 0
-38.214507 46.317537 -7.379142 255 102 0
4.336264 56.130654 29.803297 255 97 0
-32.394807 -13.508212 52.105274 255 25 0
-13.478740 -52.605228 33.452561 255 4 0
-39.433585 -4.734143 49.863231 255 42 0
-54.752588 -25.251332 20.617502 255 15 0
-13.484071 -52.635079 33.438750 255 8 0
-32.492952 50.804297 0.404289 255 97 0
-34.486995 -12.579990 51.657799 255 0 0
-34.585586 -12.773631 51.522108 255 4 0
-13.470285 -52.592709 33.446244 255 42 0
-54.098990 -24.784825 20.720701 255 0 0
-36.095211 -10.687161 50.805572 255 12 0
-35.947131 50.064254 12.809244 255 113 0
-38.681141 -9.478525 49.539879 255 59 0
-23.107262 -11.012194 58.487967 255 8 0
-34.298276 -12.813912 51.402119 255 0 0
-13.657262 -52.472114 33.559638 255 8 0
-54.118296 -24.700787 20.711346 255 16 0
-54.187712 -24.845501 20.691893 255 13 0
19.311020 -49.553202 -34.976994 255 93 0
23.786267 -55.567593 19.615136 255 13 0
-56.610546 12.628127 -15.426290 255 113 0
-36.595324 50.443532 13.187964 255 102 0
-31.484597 -13.856047 53.588666 255 29 0
25.580733 -53.548839 20.542345 255 62 0
29.528059 -13.938687 -53.778940 255 127 0
-37.959255 -7.042459 50.467390 255 4 0
-51.562687 30.044185 -5.801451 255 110 0
-27.414152 38.748501 -5.862186 255 102 0
-35.146990 -10.136816 50.626224 255 21 0
-54.187336 -24.782396 20.652362 255 2 0
-54.927011 -25.067004 21.044650 255 7 0
-35.698362 -10.155744 51.326830 255 0 0
-35.648041 -2.488940 46.101613 255 32 0
-49.080068 35.397792 -5.264215 255 93 0
59.976695 -14.857174 -15.483877 255 113 0
23.704570 -55.864797 19.659521 255 9 0
-26.652835 -13.325690 51.559422 255 12 0
-39.269547 46.656394 -18.503267 255 97 0
-54.107010 -24.993500 21.215627 255 31 0
-35.968178 50.051145 12.801392 255 102 0
-13.494766 -52.624804 33.538781 255 38 0
26.017393 -8.302859 57.548656 255 118 0
25.943495 -8.360573 57.573656 255 102 0
-54.143566 -24.794187 20.791929 255 11 0
-10.314053 58.505841 22.986449 255 110 0
-53.385853 -1.636588 -31.756227 255 105 0
-32.207010 -14.010022 52.645471 255 8 0
-40.282327 -4.235336 49.163870 255 102 0
-33.797312 53.321021 -8.502968 255 105 0
-54.124292 -24.782710 20.777537 255 14 0
-13.613898 -52.632161 33.443723 255 8 0
-54.066549 -24.780990 20.745186 255 5 0
-24.685212 -43.532521 39.584163 255 5 0
-38.282003 -3.636242 48.684614 255 42 0
-13.500279 -52.589645 33.486006 255 25 0
42.870051 12.458552 45.373613 255 85 0
22.827551 -56.079846 20.267617 255 78 0
-28.938196 -36.103207 43.781609 255 85 0
32.376526 46.647792 28.869257 255 97 0
-13.128502 -52.714671 33.425435 255 21 0
-24.175017 -37.321497 45.191929 255 35 0
-38.611337 32.478767 36.652312 255 105 0
14.451511 -42.690244 -7.116856 255 97 0
-54.061648 -24.778744 20.749710 255 0 0
-33.482203 -8.718528 48.376895 255 8 0
10.954057 53.345096 32.411296 255 85 0
30.446586 -14.611546 -52.934448 255 105 0
-37.684688 51.323637 0.516656 255 140 0
-7.531124 63.249919 0.648042 255 97 0
-22.924434 -48.626919 34.115636 255 46 0
23.824190 -55.534684 19.664194 255 40 0
-39.399821 -1.018577 49.097204 255 32 0
-33.115194 -8.366273 48.573386 255 4 0
-36.989148 -8.146670 50.280584 255 51 0
14.492823 -59.955595 -15.905179 255 93 0
-39.392502 -1.214561 49.086231 255 63 0
-37.857988 -8.137269 49.992227 255 8 0
-54.133654 -24.799746 20.737332 255 14 0
-26.020783 -17.382130 55.539067 255 12 0
22.337262 -54.655605 19.369852 255 52 0
-54.164587 -24.780766 20.637969 255 0 0
23.904256 -55.509060 19.506938 255 11 0
-54.871846 -24.814414 21.333769 255 1 0
20.537696 -49.023863 -23.981186 255 97 0
20.914407 -49.598494 -24.344647 255 102 0
23.820131 -55.689237 19.593841 255 9 0
-13.528957 -52.594086 33.514469 255 0 0
-30.203185 49.414410 24.840703 255 123 0
-35.274803 -9.954505 50.823835 255 25 0
28.306290 -13.852286 -51.175222 255 97 0
-36.834236 -10.169636 50.703034 255 0 0
-38.616768 -4.663774 49.494413 255 32 0
-54.075546 -24.690202 20.705196 255 5 0
-29.796142 -14.711291 53.061563 255 16 0
20.129710 -54.872253 -20.732546 255 85 0
-13.129280 -52.682454 33.445014 255 4 0
-21.159542 -35.907920 48.588617 255 11 0
-13.110050 -52.584624 33.356672 255 0 0
-12.145281 -44.545923 44.318765 255 38 0
-25.915772 -12.863122 50.769697 255 42 0
15.611424 46.833860 40.256217 255 97 0
32.855381 45.405945 30.273984 255 102 0
-31.591092 -14.091365 53.603787 255 0 0
-54.168677 -24.733108 20.705372 255 5 0
-44.292244 -0.171076 -19.236167 255 105 0
-39.077863 -2.491097 49.235968 255 38 0
-36.523798 -10.105746 50.702309 255 29 0
-54.087840 -1.880566 -33.595521 255 118 0
-13.255435 -52.709206 33.379510 255 59 0
22.630953 -55.154371 20.785275 255 50 0
-55.004480 -25.379530 20.655639 255 21 0
-39.632080 -0.385779 49.595852 255 0 0
-13.478827 52.259080 33.837845 255 102 0
-17.418764 -43.692231 43.185331 255 5 0
-40.747861 -1.961537 48.622296 255 21 0
-39.965046 1.800404 48.506840 255 63 0
-17.355656 -43.595783 43.079913 255 25 0
-19.402732 -41.194950 44.696955 255 5 0
32.225752 46.702027 28.884087 255 153 0
32.435500 46.692040 28.797651 255 144 0
-38.849371 46.956317 -8.004492 255 97 0
-18.022985 -12.954215 59.701641 255 0 0
25.228355 -55.161150 19.643974 255 32 0
-10.261313 58.110576 0.602313 255 97 0
-25.905157 -44.590332 37.568562 255 7 0
-13.245499 -52.656843 33.423340 255 12 0
22.968425 -55.971732 20.344806 255 52 0
-32.646453 41.852967 -5.927961 255 93 0
23.051440 -55.956368 20.355307 255 89 0
-25.915091 -15.004330 55.228010 255 32 0
-26.528339 -43.812122 38.025617 255 26 0
23.658799 -55.678540 19.605381 255 8 0
-24.152112 -13.524836 54.263370 255 21 0
-55.032332 12.345363 -14.232031 255 97 0
16.960582 -25.082723 -56.043605 255 118 0
-42.895782 -1.301592 -15.849735 255 110 0
-38.386571 -8.919488 50.046018 255 46 0
-30.464093 -18.169397 52.910321 255 42 0
-37.939581 -2.742906 48.523939 255 29 0
-34.495185 9.674400 52.670468 255 93 0
23.658569 -55.655505 19.600037 255 29 0
-38.277013 -2.549738 48.755333 255 0 0
-21.924014 -44.771467 39.943807 255 4 0
-34.561372 -12.812763 51.580271 255 4 0
-36.498350 0.125238 47.339465 255 8 0
-25.891543 -44.585110 37.582105 255 9 0
-54.113066 -24.745205 20.734942 255 11 0
-33.818071 53.322278 -8.412059 255 144 0
21.636911 -55.923069 21.139318 255 92 0
-33.763033 53.357926 -8.407100 255 113 0
23.133002 -55.170450 20.700727 255 56 0
-33.827086 53.317150 -8.408312 255 105 0
-33.783896 53.345761 -8.400487 255 85 0
-54.132512 -24.678539 20.674224 255 3 0
23.850826 -55.553060 19.668246 255 31 0
-21.921742 -44.758915 39.872736 255 0 0
-33.842217 53.305617 -8.420544 255 144 0
-56.204311 11.407930 -18.543676 255 85 0
-34.754570 -12.689899 51.853412 255 32 0
25.492727 -51.718711 20.452095 255 89 0
-25.952007 -6.051159 57.828433 255 12 0
25.128735 -53.361630 20.581157 255 73 0
-37.580209 -7.479328 49.944870 255 42 0
40.356980 -41.326175 26.854263 255 131 0
-30.474672 -13.608497 52.085377 255 12 0
-25.895454 -44.559008 37.546198 255 58 0
-33.213026 47.004918 10.545651 255 89 0
-34.842302 -12.741508 51.781831 255 38 0
24.931593 -50.772780 20.133108 255 97 0
-25.791136 -42.126632 40.668156 255 95 0
-29.372106 -14.623595 52.743031 255 76 0
-53.799539 -24.908271 20.693873 255 27 0
24.407970 -55.210607 19.705716 255 5 0
23.631388 -55.855194 19.674663 255 51 0
-24.433885 -44.309114 38.895650 255 13 0
-34.551973 -12.703340 51.483932 255 38 0
-53.766678 -24.769713 20.605245 255 30 0
-25.988327 -13.606936 53.079143 255 0 0
-12.443714 -44.483235 44.298937 255 55 0
-34.645620 -12.696944 51.721996 255 0 0
-23.639424 -47.643579 35.177355 255 5 0
-34.871011 -12.747453 51.761038 255 46 0
-40.681020 30.598390 20.183780 255 93 0
-33.932142 -15.365032 51.674129 255 12 0
-23.489169 -17.605927 56.685073 255 21 0
-39.623184 0.873230 49.373154 255 38 0
-26.634899 12.064530 -56.592573 255 110 0
-36.629170 -10.150595 50.716536 255 0 0
-26.987702 -41.857193 40.081233 255 6 0
-39.630219 0.843767 49.399487 255 55 0
23.249145 -55.656070 20.853572 255 60 0
-23.802911 -48.303653 33.455673 255 31 0
-15.150073 61.285111 -8.502968 255 97 0
-54.180077 -24.817592 20.742571 255 8 0
30.563550 -14.669384 -53.041315 255 97 0
-37.656105 -0.244293 47.970077 255 0 0
-26.980616 -41.927031 40.076670 255 24 0
-54.978060 -24.945132 21.358494 255 15 0
-26.870929 -13.511379 52.167834 255 8 0
20.884728 -51.964972 18.528084 255 96 0
-27.139029 -41.081486 40.703611 255 8 0
-50.724639 36.288767 12.954781 255 118 0
-50.716472 36.261116 13.063724 255 113 0
-38.105675 0.865271 48.391826 255 4 0
-39.463868 0.003857 50.002931 255 29 0
-38.199377 -0.873802 48.219982 255 55 0
0.475722 -51.442781 37.795164 255 19 0
-47.559993 -0.485447 -27.682908 255 105 0
-34.579317 -12.725178 51.552611 255 42 0
-24.716642 -45.725507 37.085280 255 8 0
-35.309476 -3.636049 45.989220 255 32 0
-34.362303 9.660620 52.759782 255 93 0
-54.733290 -25.266956 20.590248 255 27 0
-33.962754 -15.732647 51.249455 255 68 0
-27.991392 -13.880315 52.272222 255 16 0
-18.101776 -12.873489 59.442324 255 16 0
50.830652 25.657594 -28.892130 255 76 0
33.948229 45.428941 29.007224 255 102 0
-38.378195 48.430607 3.007601 255 89 0
-54.141606 -24.803581 20.732055 255 6 0
-35.220049 -10.882491 51.027660 255 16 0
-39.422236 -1.386024 49.057810 255 29 0
-50.204001 32.560520 20.422164 255 105 0
-54.133910 -24.788056 20.735136 255 12 0
-54.772190 -25.279503 20.591176 255 16 0
-59.805883 -6.845742 -19.003421 255 113 0
-13.231890 -52.623890 33.564223 255 8 0
-33.330952 47.797997 1.629714 255 97 0
-20.858371 -38.084654 46.665241 255 6 0
-42.952951 -0.533943 -13.968031 255 102 0
23.829372 -55.460361 19.659337 255 19 0
-13.404502 -52.555104 33.519940 255 25 0
-57.442965 -4.931669 -27.086424 255 97 0
-25.160338 -41.742805 41.177809 255 3 0
-27.576760 -39.895535 41.109828 255 22 0
23.623847 -55.818093 19.660716 255 12 0
-57.432820 -4.823576 -27.127372 255 118 0
-57.106410 10.824540 -21.203399 255 147 0
-29.622303 49.660144 13.947646 255 97 0
-24.251679 -43.901049 39.297200 255 12 0
-60.288665 15.565667 -13.441612 255 97 0
20.467110 -48.822376 -23.448127 255 93 0
-39.553330 0.034793 49.932182 255 21 0
47.058124 22.246283 36.719556 255 85 0
-13.671285 -52.495057 33.529759 255 21 0
-13.413522 -52.603147 33.449700 255 16 0
51.283990 35.598983 -12.663130 255 89 0
24.012095 -53.554696 19.745773 255 52 0
10.428928 -61.662140 -1.063652 255 105 0
-13.521506 -52.569572 33.485456 255 16 0
-55.699145 24.808642 -7.693762 255 118 0
10.473430 -61.637353 -1.052338 255 123 0
-13.128165 -52.700725 33.412240 255 16 0
-26.793382 -39.785202 41.248139 255 5 0
-10.063590 -52.399142 34.905649 255 46 0
-13.125685 -52.700246 33.412497 255 51 0
-38.399586 -5.843867 49.538102 255 32 0
23.734105 -55.801639 19.655346 255 8 0
-44.360613 -0.256431 -19.532033 255 97 0
-31.761298 -14.694148 52.639648 255 0 0
23.703999 -55.933120 19.673383 255 12 0
-28.572895 -12.753215 50.551809 255 25 0
-19.418597 -41.272540 44.605547 255 3 0
-24.679274 -36.798734 44.309711 255 5 0
17.161128 -56.367185 6.995635 255 89 0
20.961289 -49.097695 -23.766305 255 105 0
-54.092874 -24.691656 20.717491 255 8 0
-54.055256 -24.670101 20.683650 255 8 0
-26.569594 -14.346295 53.794950 255 16 0
40.129994 -21.619341 44.495817 255 110 0
-24.009787 -45.515183 37.651782 255 11 0
-54.155732 -24.828936 20.746032 255 4 0
-34.375928 -12.696607 51.183925 255 12 0
-36.375954 29.118459 39.949166 255 136 0
23.740254 -55.490884 19.594720 255 19 0
28.950872 -13.819776 -53.379866 255 131 0
-7.168451 -50.576970 38.158037 255 3 0
-24.021954 -45.530866 37.667234 255 32 0
-13.255252 -52.644375 33.419989 255 4 0
-54.178190 -24.719547 20.717685 255 8 0
-18.961369 -41.260630 44.673447 255 32 0
-25.886373 -15.206825 56.184699 255 12 0
-21.951678 -44.835687 39.986179 255 4 0
-54.188182 -24.710787 20.724827 255 0 0
-35.862622 -1.110801 46.255487 255 4 0
-24.025124 -45.537517 37.667332 255 46 0
-53.504272 28.587345 -5.590547 255 102 0
-54.184734 -24.702155 20.705789 255 5 0
-42.573384 0.238149 -19.358517 255 97 0
-26.438407 -13.303494 51.564763 255 21 0
-10.214976 58.526764 22.977428 255 123 0
-54.731544 -25.271945 20.594337 255 15 0
-39.405819 -1.100842 49.638316 255 51 0
-23.625528 -9.896341 58.411581 255 4 0
-34.735846 -11.631351 51.194093 255 32 0
-9.094390 62.288782 0.319716 255 123 0
-39.414665 2.342698 49.603991 255 16 0
-23.860025 -48.340444 33.586921 255 34 0
-16.072203 -38.775248 48.041432 255 16 0
-38.027899 -7.113980 49.711792 255 8 0
-54.198735 -24.717307 20.704053 255 11 0
23.562260 -55.766557 19.618466 255 11 0
-36.893917 -8.776171 50.604964 255 0 0
-54.187499 -24.783238 20.656418 255 16 0
-10.287777 58.544429 23.046280 255 102 0
-13.407262 -52.592634 33.459919 255 4 0
-35.290555 44.461480 2.720752 255 102 0
-13.498447 -52.555178 33.490914 255 8 0
-33.698326 45.779691 28.746003 255 93 0
-39.189196 0.358279 48.941785 255 80 0
-40.109836 49.446060 -1.994531 255 93 0
-45.755247 31.986070 20.265416 255 76 0
-24.022360 -45.530032 37.667982 255 7 0
22.816789 -55.304705 21.602599 255 59 0
-10.101966 58.612828 22.807382 255 89 0
-37.150610 1.116817 47.364890 255 32 0
-39.560391 0.157287 49.803811 255 4 0
23.645088 -55.920844 19.688631 255 9 0
-21.986569 -44.853221 39.961735 255 8 0
-32.881764 -12.452930 51.381142 255 4 0
-13.134694 -52.730809 33.456416 255 21 0
-33.789343 45.699197 28.767233 255 85 0
23.811812 -55.656354 19.594091 255 10 0
-10.215346 58.666099 23.038187 255 165 0
-23.945724 -45.875102 37.212574 255 12 0
-13.499335 -52.578325 33.496815 255 29 0
-10.179013 58.549946 22.934286 255 123 0
-13.130500 -52.697442 33.410613 255 38 0
-36.147488 48.985570 5.206738 255 110 0
-28.127974 9.738920 -56.317497 255 123 0
-35.414981 48.905007 12.674188 255 93 0
-44.870020 -1.790087 -15.059151 255 93 0
-22.018685 -44.869390 39.973934 255 4 0
-54.120150 -24.794519 20.720455 255 8 0
42.898453 22.222674 40.749618 255 97 0
-37.328484 -8.905017 50.322984 255 4 0
-13.505499 -52.589373 33.490205 255 38 0
-39.674114 49.745719 -3.003013 255 123 0
-13.495690 -52.567416 33.481629 255 0 0
-26.122198 -14.358069 54.363155 255 8 0
-54.196002 -24.733394 20.705703 255 19 0
-54.014836 -24.687364 20.708412 255 2 0
-30.214901 -17.995046 52.849446 255 51 0
-13.526255 -52.601000 33.517925 255 123 0
-35.481964 -10.958602 51.433900 255 4 0
-35.383568 -10.914888 51.357181 255 21 0
-49.311804 34.065336 14.780923 255 93 0
-54.850626 -25.334286 20.642162 255 32 0
-13.529394 -52.624183 33.543424 255 8 0
-34.079074 10.157276 52.850132 255 97 0
-54.124722 -24.803084 20.775777 255 13 0
-34.270734 -12.798510 52.265137 255 0 0
-34.259775 -3.789093 45.444718 255 46 0
-45.116160 -1.937785 -16.039646 255 85 0
-54.100867 -24.791594 20.761493 255 4 0
-54.702858 -25.032414 21.155985 255 13 0
-54.161524 -24.725659 20.684564 255 14 0
-54.089478 -24.781426 20.755044 255 7 0
-21.952702 -44.865732 40.014310 255 29 0
-55.874872 -3.453183 -28.788483 255 102 0
-58.331347 10.996097 -23.113413 255 97 0
-35.445016 -2.561002 45.416991 255 25 0
-38.669536 -2.421633 48.961404 255 55 0
-58.146189 10.886175 -23.626296 255 131 0
-39.001444 30.834877 38.166685 255 110 0
-13.033486 -52.587551 33.723357 255 29 0
-54.456982 -24.738127 21.754019 255 18 0
-39.051174 0.847940 48.944982 255 38 0
-37.278532 48.993759 1.831789 255 102 0
-27.232465 -40.220670 41.085173 255 0 0
-27.228012 -40.212331 41.072131 255 0 0
-39.014351 -2.840390 49.320534 255 72 0
-56.705550 22.277139 -8.883248 255 97 0
10.746046 -43.664517 -45.117873 255 102 0
-54.204270 -23.856284 22.627252 255 21 0
-52.922897 -1.083904 -32.897388 255 105 0
-54.992416 -24.884933 21.358480 255 14 0
-13.498371 -52.600021 33.477823 255 51 0
-7.738723 -55.323848 30.933887 255 16 0
-53.374895 -1.746008 -34.724084 255 123 0
-34.279823 10.198090 52.712263 255 113 0
-54.121414 -24.689271 20.686808 255 2 0
-24.075405 -46.801125 35.540727 255 5 0
-13.533608 -52.635664 33.542797 255 51 0
-13.525032 -52.598357 33.513756 255 51 0
-13.525043 -52.599447 33.513509 255 42 0
-13.532194 -52.574564 33.479176 255 42 0
-18.970071 -41.282162 44.684516 255 3 0
-17.171026 -46.394842 40.685156 255 7 0
-23.127216 -48.211545 34.508381 255 6 0
-53.293020 -1.437971 -34.863682 255 93 0
23.763059 -55.733725 19.637017 255 16 0
-53.258182 -1.373035 -34.919491 255 105 0
-13.246673 56.498324 26.270803 255 93 0
-21.872431 -44.740044 39.892181 255 4 0
-27.705686 -14.887550 53.846083 255 0 0
23.784779 -55.689002 19.526251 255 24 0
-12.963675 62.030895 -6.465380 255 102 0
-19.401719 -41.221414 44.520314 255 12 0
-29.009434 -35.083958 44.556241 255 51 0
7.943304 -62.982036 5.277985 255 102 0
-34.816189 49.069267 11.991254 255 113 0
-55.010005 -24.943999 21.350435 255 10 0
-39.595502 -1.073567 49.887209 255 85 0
-26.714906 -13.724174 52.624626 255 4 0
53.162867 -12.824036 -32.664103 255 113 0
-38.824967 -3.473779 50.130912 255 21 0
-7.172225 -50.602540 38.177575 255 2 0
-37.566220 -0.308689 47.937262 255 0 0
-39.335490 30.690593 38.306169 255 105 0
53.204583 -12.838816 -32.590292 255 113 0
-51.716916 33.453332 16.245773 255 102 0
24.577043 -55.685445 19.535119 255 59 0
-5.019974 -51.961727 36.668700 255 8 0
-21.909674 -44.721430 39.892615 255 0 0
-32.416508 54.783421 -2.374201 255 102 0
-54.177677 -24.723688 20.708605 255 4 0
-61.456939 -2.709168 -16.534664 255 97 0
-61.480675 -2.559175 -16.476108 255 113 0
-20.260267 -38.319687 47.112023 255 4 0
-36.657844 43.381464 28.843388 255 105 0
-54.080173 -24.751847 20.749930 255 0 0
-21.943849 -44.752630 39.958820 255 21 0
-54.099897 -24.786757 20.787087 255 3 0
-24.321199 -45.566464 37.786652 255 19 0
0.294708 -51.558377 37.697655 255 19 0
-54.722469 -25.138673 21.214447 255 1 0
41.187013 25.024673 41.654360 255 85 0
-58.305504 10.863662 -23.240891 255 113 0
23.781921 -55.661242 19.527765 255 0 0
-13.234070 -52.632497 33.573326 255 12 0
-26.539315 -44.124343 38.041118 255 19 0
-24.473730 -45.392214 37.767385 255 15 0
-60.581269 -3.777377 -19.321781 255 110 0
-56.342061 8.014750 -23.364212 255 97 0
-54.010723 -24.732031 20.685876 255 7 0
-34.936639 -11.502260 51.647363 255 0 0
-54.114551 -24.781667 20.735847 255 6 0
-6.472267 -52.694646 35.736211 255 21 0
-48.677884 36.868779 13.375466 255 102 0
-19.203195 -41.479958 44.576356 255 17 0
23.758794 -55.504305 19.622645 255 26 0
-26.673959 -41.893121 39.990787 255 15 0
41.887524 -7.299771 -47.432465 255 123 0
-34.512473 -12.690595 51.249531 255 38 0
-26.296746 -43.840205 38.083133 255 12 0
-7.744621 -55.278755 30.897958 255 8 0
-30.014382 -15.368457 53.398269 255 25 0
-33.616563 -13.187455 52.421148 255 4 0
-24.041621 -14.225992 54.719735 255 42 0
-26.849251 -13.369755 51.532778 255 4 0
-39.456011 -0.014048 50.009129 255 29 0
-26.215591 -16.766602 55.471548 255 21 0
-16.537446 -42.066700 45.033140 255 3 0
51.765342 -3.199568 36.983809 255 89 0
-54.771278 -25.281594 20.605888 255 16 0
-38.499744 -5.681028 49.479270 255 46 0
-6.836115 -50.679794 38.114658 255 0 0
-12.318406 -53.352148 33.092145 255 16 0
16.238718 -61.240740 -6.488317 255 113 0
-44.889842 -1.741599 -16.570969 255 102 0
-54.087522 -24.753115 20.715576 255 40 0
-34.609739 -12.716693 51.744846 255 0 0
-39.279052 0.009529 49.905274 255 42 0
-37.878167 -0.248312 47.943837 255 21 0
47.125181 22.342018 36.961056 255 110 0
-21.486793 -45.985087 38.746332 255 0 0
-33.112160 -13.146078 51.734802 255 0 0
-54.909481 -24.840092 21.334671 255 13 0
23.740912 -55.878557 19.686570 255 23 0
-34.700874 49.874316 9.338496 255 102 0
-39.458632 -0.003375 50.007063 255 25 0
12.018445 -58.599664 -2.028837 255 110 0
-39.486467 0.006892 49.985086 255 25 0
23.658483 -55.317548 19.600660 255 11 0
-54.854649 -24.812596 21.316324 255 15 0
-33.192747 51.435045 -0.157804 255 110 0
17.355401 -39.951868 46.684696 255 0 0
-54.857864 -24.812512 21.310845 255 32 0
-35.866086 47.873820 6.033552 255 118 0
22.951041 -55.946792 20.680772 255 69 0
-21.932646 -44.813052 40.012391 255 0 0
23.832854 -54.343000 19.780632 255 21 0
4.092603 -61.552117 11.730244 255 131 0
-22.476519 -35.621060 47.667772 255 24 0
23.550676 -53.610105 19.633118 255 40 0
23.735752 -55.831211 19.655991 255 1 0
-53.825428 -1.938978 -34.011082 255 110 0
-2.138868 -61.084103 15.061877 255 110 0
25.360402 -54.603861 20.899312 255 72 0
-13.145716 -52.730937 33.443057 255 25 0
-13.125222 -52.664598 33.395311 255 46 0
-17.688216 -44.626022 41.901135 255 5 0
-26.992808 -41.867252 40.093607 255 16 0
-39.475648 0.010059 49.993631 255 25 0
-39.331317 0.006590 49.860387 255 25 0
-39.319178 -0.008578 49.848756 255 25 0
-37.684744 -6.909102 49.853686 255 0 0
2.260667 45.516047 44.506953 255 110 0
-54.155124 -24.683901 20.684474 255 6 0
23.635797 -55.619910 19.586533 255 4 0
-56.242480 -3.557990 -29.695355 255 113 0
-39.302838 0.030320 49.818039 255 102 0
-23.951554 -46.003973 37.239496 255 15 0
-35.786987 21.355427 42.863494 255 105 0
-43.809734 -1.119118 -16.585510 255 102 0
3.430005 -61.069012 12.295202 255 105 0
-12.986680 60.717036 -4.534028 255 102 0
-11.835901 11.595144 61.507350 255 89 0
-13.095069 60.884443 -4.511909 255 140 0
-23.841267 -53.812033 -24.362862 255 102 0
-23.711400 -43.323220 40.397353 255 4 0
-48.694951 32.088288 19.676682 255 102 0
-40.137482 -4.720539 49.238086 255 46 0
-48.969114 32.391550 19.826010 255 85 0
-23.396465 -44.327326 39.398808 255 4 0
-4.428985 55.455101 24.257492 255 97 0
-13.122459 -43.244279 45.318135 255 59 0
-38.090897 50.410349 8.097544 255 105 0
-25.808911 -16.713982 55.396562 255 21 0
-20.105660 -40.910732 44.494544 255 16 0
17.111400 -56.556516 7.144623 255 97 0
-39.400602 -1.360133 49.075912 255 38 0
-12.136340 -44.652209 44.214132 255 46 0
-54.830715 -25.258163 21.262142 255 6 0
-23.525222 -13.238585 53.827418 255 0 0
-54.781714 -25.256648 21.225931 255 22 0
-54.756871 -25.260647 20.626240 255 2 0
-54.732501 -25.266206 20.608109 255 16 0
-25.420863 -44.358901 38.528545 255 2 0
-54.797895 -25.298714 20.654243 255 36 0
-33.960280 -12.665824 51.424267 255 80 0
-37.333941 1.086133 47.752721 255 85 0
-54.134465 -24.668791 20.667036 255 15 0
-23.944971 -44.183563 39.141110 255 44 0
-27.925720 -39.818179 41.333099 255 17 0
20.243725 -54.093066 -20.432400 255 105 0
-23.958333 -44.201466 39.157154 255 6 0
-24.791320 -13.741827 54.640376 255 0 0
23.705166 -55.550458 19.796971 255 11 0
-18.541213 -12.400876 59.810943 255 8 0
8.526139 -52.190727 35.876931 255 4 0
8.529851 -52.218221 35.911930 255 8 0
23.799533 -55.531149 19.677857 255 8 0
-30.729562 50.530720 21.564854 255 85 0
-30.060941 -14.647285 52.990067 255 89 0
20.236923 -48.828291 -28.563882 255 118 0
-17.164556 -46.435862 40.707226 255 3 0
-54.104377 -24.654506 20.673300 255 0 0
-35.821668 -9.398106 50.157047 255 32 0
2.560172 -47.677490 -42.166248 255 123 0
-44.561016 45.246786 -4.973350 255 123 0
-54.823896 -25.366071 20.550557 255 5 0
-44.609742 45.205112 -4.915157 255 97 0
-37.513218 1.168218 47.686029 255 85 0
29.697400 37.684228 41.900517 255 97 0
-54.642686 -25.324889 21.128030 255 28 0
-38.407161 48.334961 2.361205 255 102 0
25.181294 44.598370 37.875821 255 102 0
-32.128005 -14.520597 52.605885 255 51 0
-13.380533 -52.573557 33.528455 255 0 0
23.724613 -55.632786 19.617785 255 8 0
-36.733699 -11.291077 50.801938 255 29 0
20.800094 -48.612245 -23.484662 255 102 0
-39.702174 32.034358 36.881429 255 93 0
23.830198 -55.670220 19.639486 255 44 0
-20.009745 -56.541526 21.455906 255 93 0
22.727545 -54.205234 19.980365 255 38 0
-38.958857 -8.059128 49.748849 255 51 0
-25.478014 -6.752089 58.080083 255 4 0
-23.661374 -47.062457 35.499936 255 16 0
14.432023 -58.595066 -13.826448 255 113 0
-35.553795 -13.112892 51.202243 255 51 0
-38.193450 0.297044 48.348530 255 0 0
-54.786224 -25.278248 20.580454 255 26 0
23.698466 -55.671530 19.601709 255 8 0
-54.913684 -25.369997 20.371348 255 3 0
-54.063155 -24.627741 20.658724 255 15 0
-18.172241 -12.742357 59.628371 255 12 0
20.263547 -53.063317 -21.576587 255 93 0
-37.167174 -10.599482 50.298930 255 29 0
-60.326479 15.528045 -13.314870 255 93 0
23.788047 -55.604386 19.604952 255 11 0
-38.222620 -7.261491 50.115567 255 4 0
23.933823 -55.472857 19.573556 255 11 0
-21.408203 -43.077452 42.214002 255 0 0
-38.769396 -4.678706 49.373537 255 38 0
-48.894235 32.391481 19.850538 255 113 0
-54.226110 -24.743313 20.753002 255 22 0
-31.406994 -10.629215 48.817287 255 38 0
-13.528652 -52.617424 33.530834 255 12 0
-30.449448 49.990676 25.128737 255 93 0
16.963820 -50.748667 -31.968989 255 89 0
-39.220998 -4.861252 49.823745 255 8 0
-34.782062 -12.837850 51.798531 255 29 0
-37.727643 0.893581 48.066421 255 4 0
-55.937854 10.113195 -20.618126 255 97 0
-23.389183 -47.995675 35.031128 255 23 0
-54.874199 -24.830669 21.366288 255 7 0
18.714672 50.064786 34.654989 255 89 0
-26.659981 -14.620295 54.100017 255 21 0
-24.599785 -48.735433 32.823743 255 42 0
-54.956748 -24.947608 21.351991 255 15 0
-26.957897 -41.954454 40.031634 255 32 0
0.179371 -60.883633 13.924592 255 102 0
-58.919454 13.557576 -16.157014 255 110 0
1.508141 47.246504 -42.698751 255 113 0
-36.749578 -8.295760 50.485601 255 29 0
-39.256144 -1.208505 48.906455 255 42 0
20.955990 -47.682537 -21.789806 255 102 0
30.102541 -14.111954 -53.536316 255 113 0
-35.111599 8.474543 52.469493 255 102 0
-54.173562 -24.703161 20.705507 255 22 0
-24.308496 -14.020944 54.974893 255 0 0
-54.016065 -24.737523 20.688170 255 1 0
-25.643057 -39.752893 43.148909 255 1 0
18.750181 50.003522 34.724177 255 97 0
-24.375577 -14.694252 57.286013 255 21 0
12.536731 1.365024 62.439227 255 165 0
-24.244759 -53.882382 -23.802743 255 102 0
-38.824497 -3.456866 49.430871 255 59 0
-54.209246 -24.746677 20.687138 255 1 0
-36.076956 49.460254 11.138548 255 110 0
-13.179513 -52.717725 33.376963 255 42 0
-38.536459 45.225944 -6.304701 255 102 0
-34.730620 -14.167152 51.485589 255 46 0
-13.530455 -52.591423 33.523916 255 12 0
23.747160 -55.685210 19.592514 255 10 0
-24.704622 -45.714395 37.084264 255 58 0
-54.831984 -25.326837 20.652580 255 19 0
-54.821247 -25.299049 20.624276 255 27 0
-39.026191 -2.642953 49.260559 255 38 0
-36.296529 49.748697 11.228365 255 97 0
-54.200921 -24.741360 20.682382 255 10 0
-29.194602 -38.665406 41.356397 255 32 0
-39.488025 -1.302294 49.007167 255 59 0
-25.928691 -14.972592 55.223415 255 4 0
-45.230979 -1.679493 -16.873950 255 105 0
15.105706 43.828652 34.417870 255 123 0
-27.469916 -14.418114 53.543474 255 8 0
-27.534886 -15.441117 53.979422 255 0 0
-13.136842 -52.699604 33.419428 255 8 0
-45.034704 -2.091722 -15.887023 255 102 0
-27.144501 -19.575359 54.200289 255 12 0
-1.174695 -51.290621 37.555092 255 11 0
-7.212923 -60.838875 17.076095 255 113 0
-13.929489 61.049425 -6.452867 255 102 0
-54.821486 -25.330115 20.638412 255 13 0
18.708205 50.001182 34.750178 255 136 0
-54.076249 -24.769650 20.763499 255 19 0
15.018719 43.733540 34.460711 255 97 0
-25.081225 -13.815096 56.844265 255 21 0
23.643303 -55.615550 19.606389 255 8 0
-36.035242 -9.868808 50.663305 255 29 0
-54.477719 24.289458 -7.271358 255 85 0
-53.907599 -24.608783 20.594212 255 10 0
-54.817750 -25.292020 20.571604 255 26 0
-54.142027 -24.777678 20.661461 255 48 0
2.069190 -59.777309 13.677608 255 97 0
23.711737 -55.692366 19.597543 255 2 0
-37.839360 0.982532 48.023624 255 42 0
-54.147024 -24.703620 20.693102 255 17 0
23.817798 -55.761821 19.543264 255 5 0
27.706858 -50.518196 15.876627 255 93 0
36.796268 37.321217 36.205682 255 97 0
-54.798712 -25.304120 20.603701 255 32 0
22.770150 -56.215394 19.761424 255 73 0
23.733163 -55.677523 19.583587 255 7 0
30.161005 -15.201012 -51.336011 255 102 0
-24.799194 -22.446896 53.971092 255 0 0
24.049960 -55.542930 19.543200 255 5 0
-13.708800 60.955735 -5.789334 255 102 0
-35.696279 -10.814810 51.059782 255 4 0
23.667915 58.559839 -8.262268 255 102 0
-39.108662 -4.628538 50.067746 255 42 0
23.785512 -55.634706 19.637787 255 22 0
24.357262 -55.661512 19.559767 255 9 0
-54.854336 -25.311610 20.520624 255 42 0
-54.845297 -25.276871 20.549345 255 21 0
23.654642 -55.672805 19.615005 255 12 0
-54.155404 -24.725532 20.692509 255 24 0
-38.169275 -6.454411 50.727613 255 12 0
-32.054019 -14.353632 53.064103 255 8 0
-6.107899 -51.252813 37.490057 255 18 0
-26.978393 -13.783327 52.616513 255 12 0
23.912529 -55.642300 19.633123 255 17 0
-40.438615 48.905172 -5.540081 255 118 0
-31.721680 -13.815236 52.286838 255 25 0
24.368285 -55.677882 19.563091 255 38 0
-8.777510 -55.360822 30.805380 255 8 0
-36.773955 -8.380962 50.918285 255 42 0
-48.770818 31.666452 -5.546304 255 105 0
-34.671671 53.007287 -6.767031 255 93 0
24.378000 -55.697433 19.558985 255 52 0
-38.403568 1.251566 49.862832 255 21 0
-37.369519 1.103161 47.401024 255 42 0
-34.509644 -1.300695 44.608224 255 29 0
-38.213151 -1.558180 48.398484 255 55 0
-51.343017 32.833336 18.535281 255 105 0
-26.886768 -13.881278 52.910851 255 4 0
23.761841 -55.556982 19.522045 255 8 0
-29.450689 25.459119 -50.420038 255 93 0
-29.250733 26.025118 -50.247168 255 102 0
-37.656624 -7.368076 49.801619 255 4 0
30.130679 -10.052355 -55.215780 255 102 0
-13.379454 -52.576517 33.531580 255 8 0
29.943187 -13.701413 -54.528587 255 118 0
-24.162808 -53.687479 -24.320841 255 153 0
-26.073045 38.821126 -5.665789 255 97 0
23.625066 -55.864433 19.666719 255 18 0
61.961711 -12.956553 -7.110846 255 97 0
-44.194645 8.399886 -45.099504 255 38 0
23.746964 -55.901386 19.712701 255 10 0
-39.272999 -1.625084 49.086364 255 32 0
-13.620937 -52.560662 33.435605 255 12 0
-21.162200 -35.906460 48.583005 255 14 0
-31.369450 48.298257 -8.274212 255 97 0
5.696288 48.331483 41.101217 255 123 0
-22.053789 -44.863681 39.956182 255 12 0
23.734425 -55.621266 19.657016 255 5 0
-23.681625 -48.025812 34.658004 255 17 0
23.724997 -55.587077 19.634124 255 20 0
29.909746 -14.016288 -53.587809 255 110 0
-54.782099 -25.223405 20.538841 255 2 0
-23.388615 -47.989900 35.030669 255 62 0
-26.989656 -13.524723 51.936554 255 4 0
-0.485926 5.560199 63.455008 255 105 0
-43.224856 -1.162609 -14.017487 255 89 0
14.715562 -40.230873 46.846424 255 0 0
-24.068276 -44.026647 39.236325 255 5 0
-18.952195 -13.049264 59.276559 255 32 0
0.220855 -61.817266 15.395571 255 93 0
-13.640926 -52.624043 33.460202 255 12 0
-31.564458 -13.750172 52.050470 255 80 0
17.742998 2.485500 61.128539 255 102 0
17.694602 2.494814 61.142186 255 110 0
-35.162710 -2.523887 45.689026 255 32 0
-54.908098 -25.303685 20.520977 255 10 0
-54.800703 -25.353405 20.564714 255 18 0
-54.073158 -24.782504 20.737991 255 0 0
-42.048876 32.854073 34.787813 255 110 0
-51.541868 32.524773 18.527410 255 97 0
-50.603053 32.650706 18.329346 255 105 0
-53.676641 -1.875461 -34.248955 255 110 0
-49.209994 38.370492 12.797337 255 113 0
-24.712828 -45.731171 37.095300 255 76 0
-54.767508 -25.287391 20.560491 255 19 0
-47.416741 41.052381 -3.285964 255 85 0
-24.530595 -43.441673 39.785860 255 18 0
-54.140710 -24.809085 20.799797 255 11 0
-54.757604 -25.227187 20.492472 255 21 0
-35.081878 -10.230550 50.584923 255 38 0
23.783489 -55.600440 19.630414 255 11 0
-55.020113 -25.389658 20.522129 255 8 0
-33.103620 50.803137 -0.032384 255 136 0
-6.952226 -48.469803 41.071071 255 76 0
-13.439828 -52.609416 33.495428 255 0 0
-54.884859 -25.312334 20.440760 255 32 0
-54.826761 -25.260981 20.659963 255 28 0
-54.856136 -25.275482 20.529563 255 31 0
16.909936 -26.555248 -55.376555 255 123 0
-14.186282 60.762993 -5.843764 255 105 0
23.729304 -55.705749 19.548897 255 22 0
-54.733591 -25.279844 20.541087 255 39 0
-23.444902 -44.312812 39.410615 255 16 0
-54.163128 -24.716104 20.715527 255 44 0
43.658973 22.951420 40.309011 255 89 0
-31.452718 -14.695257 52.346187 255 38 0
-54.746377 -25.295218 20.551350 255 21 0
-54.755360 -25.286806 20.601893 255 8 0
-24.659263 -45.825000 37.100920 255 62 0
-54.844952 -25.338441 20.630793 255 20 0
-40.349742 -0.100706 48.524572 255 8 0
-24.968247 -46.940654 35.084040 255 65 0
-31.810110 53.490718 13.584917 255 102 0
-37.855680 -4.171615 48.052829 255 4 0
-54.114929 -24.795370 20.774075 255 23 0
-30.289007 -14.263193 52.798085 255 0 0
